1.0043399665341992,0.9988475156677445,1.0014181783418052,0.9941766701753416,0.9971851134327937,1.0057844123557451,1.001591146629461,0.9965412292382421,0.9998068840722464,1.002128380576064,1.0021138354562826,0.992897763815774,0.9962254210781365,1.0002322753130666,0.9973263746344737,1.0041847609665708,0.9953496984514075,0.9987649108693932,0.9958769346254598,1.0002419616163556,0.9984263712240059,0.9970868755614534,0.9985197263581946,0.9979699110960897,0.9997954143564438,1.001233272049613,1.0015233072000806,0.9954882389848128,1.0014521291581042,1.0023825950933454,0.9946582087215132,0.9971313460187339,1.0014869424362245,0.9957902314786099,1.0022365245772733,0.999457868392936,0.9949418245014672,0.9987834559826323,0.9968463483098715,0.9960510815488129,1.000373739215795,0.9977891613013257,0.9992064760404182,1.004204380076807,1.0024492781412657,0.9964717901416541,0.9926666188003843,1.004146117126447,1.0019960130962204,1.0016168279820288,0.9984603061967403,1.004694775627615,1.0075063371012603,0.9964523671917982,1.0007519772068372,0.9976945844903621,0.9997850630420372,1.0028724846239037,0.9976644082780158,1.001715406644787,0.9992213805656978,0.9932545935784717,1.0038073973466308,1.001360644307668,0.9976925943687739,0.9986307383951794,1.0023143777447814,1.0005254840969549,0.9982091047025519,0.999551309573891,0.9940676580877051,1.0030609465265103,1.0011788292132435,0.999561759467628,0.9983830371290857,1.000812350525116,0.9992507846465125,0.9974593659939374,0.9972387053457121,1.0083749565049371,1.0044053550078453,0.998927286037217,1.0043404025541227,0.9997995288724961,0.9945379779406074,0.9993782232199124,1.0037611400432933,0.9969265458461234,0.9978553549114556,0.9975830019859728,1.000147012042494,0.9925283869630516,1.000309045399934,1.001652993691012,1.0011736370279696,0.9940408958702345,0.9971958662099045,1.0006949376314564,1.0006217407341098,1.0008910831880022,1.0007893488723105,1.0028389608069312,1.0008724628277281,0.9993933735734198,0.9986140408360215,1.0022979406625916,1.001410088130511,0.9985947412711991,1.0042149102950158,0.9995339717285555,0.9992560410345226,0.9984776770240534,1.0008116022786422,0.9996398874508133,0.9995146790147535,0.9969671719726647,1.0032940197979685,0.9991456786246868,0.999214419354157,0.9954456721764405,1.0043935275392573,1.0018607687648255,0.9989203442052802,0.9991467951874687,0.9959650612352052,1.000906850120325,1.001978818443288,1.0000664470385459,0.9987700036317343,0.9996594940020523,1.002526927193448,1.00449641453423,1.0004777814694643,0.9994606111949439,1.0009305394339882,1.0006717482780934,0.9976278965195637,0.9971647842068583,1.0015003849810722,1.005010369869934,0.9946111144675647,1.0004885348336567,1.0081741593351448,0.9980518769015169,0.9999819042299397,0.9993063251027692,0.9941673234052855,1.0066369198252738,0.9983411935284908,1.0010223892841232,0.9994983015369325,1.00211636535083,1.000488523010977,0.9963375477399701,0.999247852854404,0.9987993453770018,1.0029848304819495,1.0037149035794823
1.0012871689142595,1.0022595293484333,0.9973504776463467,1.0067289241499386,1.0025328097350887,1.000560723360375,1.0003351388414907,0.9988655844423896,1.0014257368844293,1.0019359842279227,0.9993733786094302,1.003365690489389,1.0060139065837048,1.0014462877072985,1.0013306654595258,1.0003077381726455,1.0008574382208715,1.0035726225395512,0.9958334993560812,0.9922745165972265,1.006795860944414,1.000548303423074,1.001582602702629,1.0020311037560146,0.99943429450379,0.9999873821530723,0.9999778681595659,1.0072359065869922,0.9988166657017464,0.9981690987703322,1.002394587824776,0.9959963933402639,0.9982314055433339,1.0024079185213204,1.0042693361356618,0.9990403368265404,1.0027119085095517,0.9985144302193042,1.0013927644566203,1.000050381464928,1.0013329169838712,1.0050168944231463,1.0050287863580893,0.9984552716624099,0.9985130320400731,1.0006710221575152,0.9996978305139823,0.9973103395609494,0.9946295359753683,0.9971862270548343,0.9997850118215308,0.9968135241782223,0.9926222158463975,1.0045395664833434,0.9977530376777897,0.999305620196362,1.0012909966886723,1.0039052872103162,1.0001360339621341,1.0015467364137625,1.0063257111678605,0.9988103881090388,1.000169926605249,0.9967186753207935,1.0035134921985578,0.9976011560372348,1.002357319078323,1.0009301563820672,0.9980849333887062,0.9996843540186361,1.0036142157828734,0.9991895139495832,1.0004621223363035,1.002613490959438,1.0026096341183892,0.9954980582949845,1.0020973235500708,1.004575769565773,1.0019308216057026,0.9976913090198778,0.998265805163569,1.0004813037752083,1.0007698418935105,0.9998939701426195,1.001891826878546,1.0023393943164607,0.9988561627369457,0.9992464760154797,1.0021073382940102,1.0047182871075482,1.0018279744463454,1.0046355683618908,1.0052418915828916,0.999504961622735,1.0023696104728714,1.0027650498768819,1.003113470241172,1.0036292373619249,0.9984505232147995,0.9984144678210887,0.9957622781190558,0.9998463369656679,1.000506310838353,1.0027948712705164,0.9999363153798109,0.999901750059107,0.9959409087245614,1.0012734010889741,0.9996894956256739,0.9988567224312328,1.0001778358666515,1.0011677439748614,1.0019810429054976,1.000194319249212,1.0041773940276753,1.0003946874700194,0.9982107201346689,1.0066330097567482,0.9964557458413779,1.0014601359978004,0.9976311527462874,0.9988045144252367,1.0034660312836456,0.9991433045513652,0.9997956206321227,1.001356167659379,0.9948497863548105,0.9998630304235356,0.9922467849998211,1.0007684101342942,1.0003970497383525,0.996136615310632,1.0013206352454966,0.9990507365351177,0.9990177038686875,0.9985788406097651,0.9988092389151223,1.004784948193668,1.0011911635254458,1.0023762096821378,1.0029841371313415,0.9946733374522749,0.9978041768344733,0.9987134294759477,1.0025518629272598,1.0020310101609686,1.0034817089273524,0.995408291459573,0.9966146802551261,1.002386698560676,1.0021242333285334,1.0022173033679125,1.0009731996430336,1.0010396434190354,0.9945910088044958,1.000617628806531,1.0001306392523208,1.0000937899932016
1.0021840379577585,1.000975488138415,1.0002948138056929,0.998351320445022,1.0010968950710797,0.9969870811881065,1.0023298705029289,0.9969957124745923,0.9997225483260126,1.0014898687300264,0.9982636829397212,1.001462277061514,1.0024123881748,0.998300147117235,1.0008086393597957,0.996195081694852,1.000043406435192,0.9982674525430086,1.0009609359085871,1.0026958262594696,1.0000297980682051,1.0009654541791613,1.0022219453296257,1.000011514877086,1.0009773237402533,1.0014228173323139,1.000602166174836,1.001922988562445,1.0012296099117919,1.00290602558715,0.9984462155791459,1.0031580413424264,1.0008790636870297,0.9992892340355578,0.9990087052207581,1.0022372666561152,0.9981598517867478,1.0008671256266795,0.9993798147153454,1.0005361464123228,0.9968174513626025,0.9982379414898509,1.000113611913527,1.0000826562439704,1.001371159272663,1.0016503506078134,0.9974169655856037,1.0006116546345274,1.0026659287772568,0.9989182715044699,1.0004954845773653,1.0007121440096454,1.0007777529829531,1.0036301807907106,0.9962941737900091,0.9989564329624835,1.0006628185746078,1.00213313889374,1.0007798505323164,1.001518068192307,0.9993368534288345,1.0025153396059232,1.0039752458592022,0.9948744751565073,0.9995916775402157,1.0013063271890015,0.9958999105893861,0.9980031770894353,1.0024061727312588,1.0020412755574128,1.0010927471496573,0.9986840469333849,0.9996558510666417,1.0015969289555207,1.00025796007469,1.0009406490979198,1.0007695398019183,0.9982093881959231,1.001919858637616,0.999031731959909,0.9971341858837401,0.9996648689696745,0.9985214419845151,1.0001054424550457,1.001380877073746,0.9952312997112243,0.9998432171004651,1.0008079686556535,1.004103533584172,0.9964561078398674,1.0006028082965848,0.9991001801269465,1.002074605617756,0.9988557641126182,0.9972274417131587,0.9996688460334261,0.9987134257084757,0.9997727174960868,1.0016148960954236,0.9994415521854234,0.9986645131771981,1.0015028833472719,0.9976327043733193,1.0007598029632108,0.9987167525144284,1.0012471206219313,0.9995857268775764,1.0002005904296434,0.9980759126228611,1.000543498624688,0.996888643397039,0.9997536268443913,1.0012140027022218,1.0021320514050074,0.9993231488047863,0.9984887203622311,0.9984214791130693,0.9998631012027264,0.998500901821333,0.9982105945114893,0.9998199437528332,1.0026912086388207,1.001569490493491,1.0007389272820324,0.9998823070743909,1.000055520382234,0.9975103652794799,1.0015193377991176,1.000662377949728,0.9982828211228483,1.0001137470206938,1.0021025626900149,1.0002297747477755,0.9996011573968576,1.00153570079142,0.9999120517094081,0.9992994326304816,1.0003842736265227,1.0038112009755529,0.999603097842893,1.0052937257106753,1.002532583136576,0.9981046003973836,0.9994796779042138,1.0004552288662079,0.9987135342986018,0.9995903429742891,0.9986487389376257,1.0027745137175428,0.9968220690147255,1.0006446592942129,0.9985648197321949,0.9961086606379197,0.9991208219293446,1.0026800822303754,1.0013925840108695,0.9960096037380703,0.9981058734527172
0.9953260909470522,1.0006637636022717,1.000374566492466,1.0001286448637097,0.9986527360041593,0.9945611318695904,0.9980202913700634,0.9986038889757249,0.9983451433257812,0.9951274253487593,1.0029346264520995,1.0011269108041083,1.0002436564072759,0.9988465403926423,1.0006835174868278,0.9983856872293021,1.0006513519589875,1.005632518006046,1.0001511338276008,1.000178836619304,0.9992467836404726,0.9984060152725585,0.9978360225897563,0.9973706906632583,0.9925673201114688,1.0012620997291575,0.9973678273905121,1.0007472575560297,0.9987321328921912,0.9959592192844448,0.999802388601653,1.0002283939449137,0.9988597629978008,0.9994662685621677,0.9976020769866601,0.9976250740927719,1.0010246813168133,0.9977978581717516,0.9963113634980217,1.0012752211810894,0.9987535182787773,0.9978944725664507,0.9990878819775634,1.001200552864674,1.0039450418604718,0.9981531228770378,1.0030546898043722,0.9987643385945408,0.9989220096311401,1.0031650105800758,1.0021297014711967,0.9987756345038912,0.9984714288026987,1.0008336427127227,0.9979788275613881,0.9984243929538351,0.9987787769112484,0.9995001591741096,1.0013720111302236,0.9979044769070772,0.9994855912321592,1.00182039375534,1.0040513204602746,1.0014217378101875,0.9986278142998095,1.0044143571871658,0.9967242400769576,1.0035078243623603,1.004241603169703,1.0001920412156555,1.0047394099141005,0.9968768420780252,1.0013898847848157,0.9949781404450089,1.0035804073529562,1.0015670118940174,0.9996539445481059,0.9934154477231314,1.0023277868712432,1.001591310832169,1.0007082313208753,0.9969922109045466,1.0006433275500466,1.0036685618576668,0.9972916269874915,0.9998572245911795,0.9993532706980599,1.0051760295430792,1.00007560645939,0.9997849562626758,0.9992857982627773,0.9991649902754034,0.9991869835509347,0.9995545646900753,1.0057742858465657,1.0034658673272603,0.9986273563355823,0.9993098656522753,1.0026526156233908,1.0013348514028195,0.9961218587111964,1.0032167196128832,1.0034068576849973,0.9984346060987014,0.9986081401232797,0.9964986940278036,1.0028023612035735,0.9988092991486721,1.0001573812857603,1.0046270292225215,1.0050282967239794,1.0048535201227846,0.9973624617155065,0.9976780244602341,1.000973774986642,0.9984078227368887,0.9962750510902043,0.9999607557826509,1.0044918843588861,1.0032375800473659,0.99772723954304,1.0017794649814304,0.9995080198171086,1.0020398565975892,1.0028782470170763,0.9969489146095404,1.0022971991072243,0.9981380816758296,0.9946991541804514,0.9979240435736954,1.0013227845035468,0.9992737930606576,0.9985867518792513,0.9999591665088594,0.9967078547331514,0.9938763695712867,0.9971089488608612,0.9994044419546088,0.9974435568786856,1.0000847143618212,1.0025317768890805,0.9962141408901521,1.0001192655554605,1.0003295662351894,1.0018830300909378,1.000363195775089,1.0012423291306756,0.9990682234636878,1.0011782090945214,1.0003290878437057,0.9997261084148382,1.0000600304734242,1.0028273712797067,1.0043464522753123,0.9994870753919592,1.0025095599159177,1.0001056120160017,1.0000959317340308
0.9945820996137257,0.996530797907424,0.9976026767507575,0.998934688498188,0.998270423474903,0.995529421430074,0.9918136105538635,1.0019790209352246,0.9994404555987308,0.9955166875334867,0.9999752038351278,1.006652330587814,1.0006594165150733,1.0027017750645921,0.9980382417288213,0.9981457294270504,1.0011198242447132,0.9981526579611226,0.9996065492644121,1.0009108559894562,1.0001787874593906,1.0017072236891518,1.0011794808628982,1.0000717579550964,1.0047854640020035,1.000528845935002,1.0014245210537585,0.9994073073195017,1.0075133649571337,1.002809042373201,1.006529153974122,1.0026712007099756,1.0009740153662965,1.0003910903085793,0.9958358052563833,1.0030471636280078,1.0065264891752503,1.0005887182785158,1.0031511739972978,1.0054761985956076,1.0111132861768595,0.9986186483309244,0.999115821830839,0.9984839795247986,0.9951173273768043,1.0006382485776006,1.0036070002758397,0.9958796304217499,0.9970327656495953,0.9957861165325266,1.0014533430245416,1.0000783921765775,0.9995600662702986,0.997289994196328,0.9989694261916316,1.00542898205177,1.0002790316750922,0.9946082826686378,0.997618304175846,1.0022442866975916,0.9924828814887618,1.009984977069105,0.9979343897878785,1.0058123334242979,0.9973046464330106,1.0013500698888111,1.0017080367721387,1.0006222597150976,0.9987441315120562,1.0051649238591842,0.9975335695843806,1.0019761389228996,1.0004649758214117,0.9975884102274358,1.0055105001227123,0.9950858042385483,1.0025023506666542,0.9950705730924478,0.9971662914899908,0.9985422177692732,0.9979351845079591,1.003915692050728,0.9990607180362465,1.0024419844645607,1.0033110121228892,1.0028569861853083,0.9957273354710554,0.9986686870452638,0.9957863052352512,1.0001114476190245,0.9962278487680344,1.0015470580396353,0.9994015988448799,0.9991974984960604,0.9980932791798409,1.0057935429024953,1.0012162952333092,0.9911918810124791,1.0015703616646594,1.0000148115373568,1.0063054082390217,0.9935781073745439,1.0036596851095072,0.99798351956051,1.0001386519695898,0.9986027311621702,1.0043591434254626,1.002892079743101,0.9938194110258354,0.9983185289987832,1.0014838465738036,0.9994889753094297,0.9990043839764938,0.9976957031117509,0.999048259746934,1.0035117407071683,1.005640114309135,0.9992910114942224,0.9952614453015797,1.0011185556928397,0.9977140010407933,0.9979272576679395,0.9931258126690004,1.0039348056601027,0.9996519425761657,0.9971622693123539,1.0054153245755184,0.9932590750454924,0.9986441515237305,1.0087855516366684,0.9985586655393843,0.9967679010053128,1.0000106742119903,0.9945150741888102,1.000675386829762,1.0035349385914445,0.9985418662225889,1.0051932574480233,1.0025924723149409,0.996673125664088,0.9980610140026547,0.9941727922870837,0.9987174435962695,1.0022348397588299,1.0011768468167284,1.0020723223532473,0.999046171745317,1.0010606879234925,0.9984131080222893,0.997860304393922,1.0028357326791004,0.9920535174546125,1.0007069029351863,1.0013391469269879,0.9987640267743897,0.9991342309514637,1.0059922994975035,1.002172117428267
0.9981471162810047,0.9992896714959244,0.9944108196796276,1.0019465237953125,1.0017562016927621,1.0000919260990373,0.9969932034371825,1.002220185456539,0.9990522926928518,0.9972938692946787,0.9974394790901969,1.000922715952899,1.0007615455709933,0.9956568405115032,0.9999867090175225,0.9958684926852988,1.002489692053368,0.9992173277555165,1.0078831976162732,1.0051208298957255,1.0012679943025928,1.0023839438658464,0.9997865551897357,1.0014908092929513,1.001925428813823,1.0023389696236678,1.0004009784091064,1.0013107222194098,0.997063224064811,0.9964727562235264,0.9988647057347414,1.0046579357669005,0.9964112587805322,1.006927191935647,0.9980799063202223,0.9995514704651649,1.0015774014761951,1.0020120366215808,0.9990390475019466,1.0063203763722233,0.9996361266347419,1.0006944583290511,0.9991521226322002,0.9993890704093628,1.0028554628048258,0.9960600737558517,1.0048988743057188,0.9968156638961894,0.9957274845997776,1.0064102943825397,1.004799495506872,1.0041117000606754,1.0002798414700174,0.9908062037740548,0.9994417822556421,1.0027930413212893,0.9980781897526059,0.9944290105118545,0.9961767471117089,1.0000726495220431,1.0055274129151837,1.0003092565753975,1.0077753888911507,0.9939465623841736,1.002759551679598,1.0049817295298462,1.0034202841833841,0.9985162479493653,1.002591489246465,1.0022785122295943,0.9973800950767145,0.9910350712474483,0.9954129575763901,0.9989498835952235,1.0027203957983042,0.9999289552498999,0.9973084995962489,0.999942793481195,0.9993369552843145,1.0031601197151199,1.000931011166708,1.000366872711313,0.9998743462734091,0.9936954912334379,0.9989703930466162,1.008929564164877,1.000393389922916,1.0106867504885044,0.999430178631384,1.0015467011491548,1.0012020613258024,1.0063670405230805,0.9975316892964378,1.0008218388040002,0.998244574479668,0.999601291625641,0.998784052269104,1.0025156382086815,0.9935177282924161,0.9978748765812135,1.0003124582959873,1.0022702781719124,0.9987406817946402,1.0033534664907806,1.0012717185428817,1.0048279912306846,0.9978556737743055,1.000376214328875,0.9900432371849166,0.9985997330013875,1.0003348795593798,0.9968854710043474,1.0071991632129274,1.0004295271757149,0.9977083725947102,0.9972206612563969,1.0025581270697994,0.9977780374014628,0.9986231169618013,0.9980859399830211,0.9978801191532822,1.0003378008936068,1.0044618062309083,1.0044931054783557,1.0012408166123725,1.0062252719307192,0.9973449285621563,1.0022809030529811,1.0012412724180964,0.9961472885842609,0.9973223073661592,0.99825623796688,0.999350218493338,1.0002403564097855,1.004124080090248,1.002995872515301,0.9980232601183772,1.0032474808299843,0.9958255638167729,0.993750507944209,0.9962601911312835,1.006634510649234,1.001377593885371,1.000177141860805,0.99944368179197,1.0005986669377913,0.9998127050055564,0.9985627461579826,0.9980934378646341,1.0025753939186162,1.0018288338972376,0.9956289901905796,1.005130203144461,0.9972730303332494,0.9989363387755641,0.9986360285387679,0.9973557697701836,1.0017890659926016
1.0003407318756101,0.997090842544706,0.9943259553525507,1.0007256576122157,1.0020617056425218,1.0023963578536343,0.9997373158680746,1.0021275625675516,1.0016420721277002,1.0020522468521358,0.9974391732981638,0.9935603125883563,1.0005275651986056,1.0049261903242144,1.0007584858597474,0.9986977981128925,0.998672134558685,1.0005371091881219,1.0013107282880687,1.0019710278666374,1.000593311730544,1.0008038825777053,1.0021256327934143,1.0044513923696605,0.9979707900901499,0.999613850736121,1.0032486838820687,1.001720440681196,0.994921802084763,1.0046995240093781,1.0015817219688,0.9997540952954413,0.9995590897409538,1.000654974276977,1.0014075852020163,1.0027948191951523,1.0037199216613584,0.9987500518967918,0.9981704634780644,1.0015120330210545,0.9953583217222242,0.9980498767543012,0.9934464039132473,1.003272897743446,1.00367435601554,0.9998635803976251,1.0050815690353814,0.9968338950537525,1.001981218971988,0.997452362602433,0.9974079263701051,1.005422944494626,0.9960221668309296,1.0048566151553866,1.000899431241394,1.0042207579675322,1.0017742006401276,0.9981408204266947,0.9973338232832623,1.0008394341976066,0.9993569726472746,0.9979595075157618,0.9987093348711453,0.9978528041440934,0.9990541480225756,0.9961855941726419,1.0026192252116084,0.9966741369831188,1.00053822005396,0.9969672975307899,0.998409861726403,0.9989827597008527,0.9999288473746349,1.0000414997988436,0.9939389318852712,0.9997842868669677,1.002846170184784,1.0069147593126617,0.9990111539521485,0.9931356430406729,0.9962724818957103,1.002666667857679,0.99931240800755,0.9966243194964296,0.996344236744221,0.9966492416178891,0.9972009497562822,0.9998548303304551,1.0000515375258612,1.0028609879015569,0.9977927403421312,1.0037790646092257,0.9976406776538042,1.0018322104980601,0.9954879241940431,0.9993848854337266,0.999219501921215,0.9976391513373124,1.0009620394748189,1.0011210512529332,1.0087753042382588,1.0006528827262404,0.9971773585901685,0.9976865996913162,0.9992504272831472,0.994666327113435,1.0048277397322851,1.0010187825650698,0.9993991437017333,1.0082036273049904,1.0014208551149892,0.9998697744871724,0.9979274327399756,1.0011755622844665,0.995098522006945,0.9943597703473556,1.002593220759712,1.0014752002017089,1.0004615573104374,1.0058250420390358,0.9993933507775223,0.9988488512382186,0.9934518364319396,0.9932266931904946,0.9982330869751352,0.9986820535207884,1.005415246973132,1.0004454813011396,1.0041404439861252,1.0008230069358548,1.0008285643922366,0.9996813543033011,1.0013027499200193,1.0037629387453084,0.9992401376599971,0.9970145907054022,0.9985363557091571,0.9947609932983277,1.0008402897412216,0.9997660586536894,1.0023813468202987,1.0051295361404677,0.9980454186081521,0.9996835123530411,0.9963913516933915,0.9981479461154964,0.9953714536336444,0.9982810263874137,1.0038381254884503,0.9999370461714271,1.0001298707938409,0.9976267825308169,1.0014080456791468,0.9974004128306375,0.997765893340742,1.0042325222056425,0.9992689062242329,0.9979215407896608
1.0035915863434517,1.0032036947663798,1.0060934926088982,0.9980377720452563,0.9913516002384832,0.9967203946247691,1.002700646711753,1.0016360898404306,0.9994788647743099,1.0055772551381053,1.0056023744984242,1.0022446587924003,0.9995381014658721,0.9992450331752865,0.995937613090422,1.0010224121408653,1.0021905009437613,1.0037223640867472,1.0029930667389344,1.0009589622032422,0.998332540165271,0.9997646697090424,1.0039346922853363,0.9980369238903439,0.9990796771479958,1.005308932936106,0.9989556544077793,0.997849981306643,0.9985956998034288,1.0008576666713376,0.9984739314128419,0.9970403721748752,0.9969022493226456,0.9973679009033418,1.0045561540168342,1.0064847784146649,0.9994544255207295,0.9973992942352311,0.9997832515818484,1.0057342159878622,0.9949361000964132,1.0071015630679176,1.0007016464418885,0.9937389577303644,0.9994923704403521,1.002660270614708,0.9981728821244871,0.9942822966115857,1.0118081527740581,1.0008738574904894,0.9999841421366681,0.9975111055418143,1.0006600080528887,1.0023994092468476,1.0016004100480584,1.0048931270744799,1.0014714011825279,0.9965843108992217,1.0060802105866793,0.9986864222807568,1.0014486951271,0.9936359941393489,1.0011097612715165,1.0019316240785587,0.9977597425201489,0.9983362736139011,1.0000086096593475,0.9982057295822176,0.9925742987654121,0.9974966175870378,0.9960307343062361,1.0020631234055803,0.9964653505875728,0.9904473283841844,0.9961264902488923,1.0117753493457446,0.997537948132467,1.0008429570467063,0.9979837309564301,0.9908784145850292,1.0025324713394785,1.0023840048507793,0.9954093183336987,1.0050683238525464,1.0044788913160778,1.0040374393375628,0.9957835807050862,0.9977520719775514,0.9984768871356796,0.9981746687481815,1.0002190172232805,1.0012761477025802,1.0037130195694244,0.9896065379015739,0.9946673002402335,1.0032773177816696,1.0037557620144637,0.9977310143814426,1.0031519566977833,0.9985587204656098,0.9970475859797423,0.998000474887025,1.00244650062315,0.9962281254569854,1.0017520477129431,1.0058215922865428,0.9958907526405434,0.9939685991376825,1.0002178732805378,1.0025540305458294,1.000734862925908,1.0027351678434047,1.0027676113861905,1.0004413169472983,1.0049594601309513,0.9996064191421968,1.0046442267365336,0.9996026360671363,1.005171640509793,1.003798145270605,1.003482606474918,1.005543322049753,1.0003857402308616,0.9997045293151194,0.9957662899646775,0.999070900365778,1.0002288196621938,1.0000629839170807,0.999843044500067,0.989331775029752,0.9980777345469097,0.9979321425525545,1.0012372745486073,1.0056321630489116,1.0011045393203777,1.00013944603078,1.0043202416740757,1.0019867035322556,0.9944662523224629,1.0024557836092824,1.0035424630125516,0.9944925706423032,0.9943279761335707,0.9953842362597215,1.0001779706239933,0.9978470387093075,1.0007574199078941,1.002532275415504,1.0066843127912064,1.0057910373798937,0.9935738231517615,0.9986465556946043,0.9955051715545757,0.9997557454174381,0.99610639754772,1.001244376956246,0.9945190315777015,0.9983901027673049
1.001140382577757,0.9982628359184389,0.998657252580466,1.0002107858783746,1.0039398757865927,0.9965310178627783,0.9992863225576181,1.0008901396754837,0.998347379251697,0.9989866567993323,0.9948571187440448,0.9978106928570082,0.9978181009915273,1.0073658843849174,0.9991423182296243,0.9970300555610634,0.9954634327612248,1.0013381032242596,0.9975822708750174,1.004930032878737,0.9984224359135974,0.9972048312878885,1.0008751199502974,1.0015589062737331,0.9945743063639684,1.0036330105547986,0.9984240539382406,1.003525986174338,0.9965142728983126,0.9988832577951213,1.0079497630286034,0.9995265496374943,0.9958256135744986,1.0012448475557882,0.995284896612314,1.0001634871855656,1.0030760728672297,1.0010496838492706,0.9999299812058219,1.0024018401303474,1.003436242087803,0.9976110048678909,0.9961002044529055,0.9971796659571956,0.9990424243363452,0.9991508750361708,1.0057480157709964,0.9974428948181628,1.0048560300422724,0.9938952566327788,1.0013148575010629,0.9933885709025417,1.0043444034779205,0.9967404093544737,1.0062048727939432,0.9972971065448746,1.001253475809709,1.0028177843640917,0.9988819567741895,0.9945945523032518,1.0030663779787325,1.0018192812731705,1.000505937041338,0.9955261031245626,1.0052664717471786,1.0021853406369754,0.997723251666409,1.0006621849312605,1.0041094005812157,0.9961179618859949,1.0029157468163008,1.0000440562359616,1.000783967467541,1.0015805367583521,1.003165060790416,1.0044175649517213,1.0007110804561417,0.9990966649008258,0.993343609466649,0.9979997294406553,0.9966679016388391,1.0038989895131198,1.001169919514225,1.0040290433723666,1.0031620869223186,0.9990634158946963,1.001621432104783,1.007634428308173,0.9965582158116653,1.0001753877724708,1.0014471696515173,1.0019372551627892,1.0010287745201993,1.000693704754107,0.9970009837862692,0.9998377755442373,1.0029838788675798,1.0044358987668633,0.9989069945733804,0.9977186429365378,0.9967790638736697,0.9985848683874691,1.0019982428011704,0.9993101344346917,1.00120656519855,1.0014945404064373,0.9952890667661385,1.0030670273361946,0.9953664497723644,0.995340079876884,0.9988768044243925,1.0060883812919035,0.9941759202098079,1.0021281449441157,1.000235997661426,1.0047511156039772,1.001106462471532,1.0066263958076667,0.9994518947962939,0.9990963429596068,0.9984940240095604,1.0003110851579518,1.0010886180368996,0.9981645853778556,1.0006902448345907,0.9957988947496464,1.0016330706412229,0.9939747279170678,1.0071645716768942,1.0055118344247322,1.0012919703995864,1.0002928390430215,0.9970429247571587,1.00248303518503,1.0032225435834967,0.9956705887559355,1.005416574571269,1.0008008155854682,0.9976449972540803,1.0017740304587703,0.9973867531244281,1.0009894726714106,0.9968780014480093,0.995316065754715,1.0015276685633552,0.9977553065917123,1.00445252145059,1.0007258403657624,1.0013576386819918,0.9992879787380635,1.0011874006350947,0.9989639910118924,0.9999725936135404,1.0003911784825505,1.0058863306163444,0.9986116076706604,1.0008557516693453,1.0020644662396396
