1.0058011377066987,1.0015221351442938,1.0033278348285557,0.9999812684473857,1.001333293856464,1.0018786413751462,1.0021040174098883,1.0008862185128262,1.0020293456950478,0.9990195545928539,0.9969831288069861,1.0010822385362923,0.9964931890705424,0.9952771944773886,1.000230212927495,0.9954608859912999,1.002086949351419,1.0030268925741772,1.00598668932018,1.0008343285366255,0.9976932269173039,0.9950103172022229,0.9993462261044326,0.9976491001920703,0.9987505800323698,0.9957205529183892,0.9954526315061201,0.995803956640025,0.9990322772133549,0.9988978726613682,1.0017945651344713,0.9929822561341164,1.0032095105195347,0.999408753593121,0.9964586459127409,1.0025712009725316,1.003911850189362,0.9935064978375341,1.0071778508242657,1.0022166182522438,1.0025924496308536,1.002632711134101,0.998897649073052,0.9989010172117111,0.9993886046027417,1.0004307575099556,1.0006897333524007,1.002321105997651,1.0010971881250394,0.9975963603315904,0.9997468983057403,1.0022264824127523,1.0022834938728145,0.9952940892641854,0.9966071808942663,1.0010950393757494,0.9990696531968772,1.004395463714517,1.0010224906141654,0.9996530155003295,1.0057038061068946,0.998678402895301,0.9983541012317734,1.001400709608043,1.001856359520006,0.9976807747029199,1.0017009659330074,0.997482377948851,0.9994900163503344,0.9933069316313535,1.0044076709933143,0.9964890710677342,1.000105250587456,1.004003723400592,1.0049360429346283,1.0020863190964948,0.9993875336024733,0.9994133295521421,0.9934962967052501,1.0044293900259966,1.000561196746612,0.9990058162754849,0.9997256787891653,1.0043464256180066,1.0009963006289004,1.001940596145278,0.9998891339079196,1.0019338120705559,0.9993823670645147,1.0009014370670388,1.005241219058363,1.0019891606062286,1.002399414181495,0.9989246323925738,0.9950067173751272,0.9959644467615977,0.9990851837436853,1.0031637472334416,0.9965615084297224,1.0005042439358591,1.0007012145865573,1.000942541995997,0.9951325819249376,1.0007135343976425,1.0028733367937268,0.9985864042284839,1.0018139864721851,0.9955437759216028,1.0013482898928427,1.0031964697272406,1.0013057149822813,0.999051084929651,0.999046729724924,0.9976377589676738,0.9966906608829799,0.9998551113684901,0.9979101640101312,0.9998934881021411,1.0011210721340407,0.9967352977904169,0.9993648899135713,0.9969975955723449,0.9952958368318587,1.002842782324242,1.0048756669707521,0.9971611597486625,0.9948429247405755,0.9958695233538932,0.9971063062996286,0.998507569402193,0.9994800075891621,1.0009988879531786,1.0004665609928056,1.0037457823124323,1.0009940405907691,1.003775638090362,0.9992390964924566,0.9970941513083607,1.0015758856655317,1.0010209772486856,0.9984201680313585,1.0007830923956949,0.9971696592588745,1.00289603565038,1.000943186411029,1.001959023461483,1.0004562214141193,1.0032458800310127,1.0022830253448414,0.9995391917415634,1.0002243805662376,0.9984383820054573,1.000461459187536,1.000409170452943,0.99798108522923,1.0015355054317776,0.9979641697762418,1.0010339152791872
0.9985565682104985,0.9959229668591912,1.0086582656210474,1.0046485692134057,1.003244866876253,1.0017085814454332,1.0033179913739065,0.9978943338415168,1.0020394795223049,0.9977940949796856,1.001917403088266,0.9960773527047972,1.0022258923793668,1.0014846596171805,1.0102469936248162,0.9997080567454476,1.0011686554687769,0.9997157216245884,1.0014630539573743,0.9940022395867075,0.9922987203423335,0.9972585916452434,1.0057055382358857,1.0018840249930416,1.0008620772344017,0.9932884107998984,0.9966184338255518,0.9950263995196283,0.9957022971488252,0.9952382412721603,0.9989751206637673,1.0029568618088363,0.9982634754179348,1.0016255699635535,0.9982668967105759,1.0027992253113822,0.9938092785890653,1.0039754205332323,0.9926264037778624,1.0053240047411591,1.0020883464675125,1.0046580120240602,0.9974998708269714,1.000590394896379,1.0027706610523193,0.9998367874238088,1.0001852350162568,0.9960387044031996,1.0041385965802438,1.0010618128658453,1.0031635056180306,0.9971085833825168,0.9990569982211861,0.9943711017828963,0.9985977897140657,1.005029896449076,1.0052964500220514,0.9985664393919217,0.9976501010175419,1.0036767432722897,0.9979594125482281,0.9983128066389311,1.0029911190432788,0.9947466539304649,1.0006870162039971,1.0056222427880044,1.0044881880518655,0.9964116873578432,0.9906886879323729,0.9950687380055406,1.0008230597970587,1.0013509412195305,0.997374033356032,0.9988745515499177,0.9997031890858062,1.0018480766188018,0.9986348009116054,0.9989554661470387,1.0032142022677726,1.001019381855644,1.0011072391601281,0.9906983160008177,0.9996091516073808,1.0017087663549962,0.9988546877146015,1.0037224169407863,0.9993369415293231,0.9994124594493229,1.0038061054226461,1.0006105946596175,0.9980503693767016,1.0069630769747957,1.0073174585559954,1.0054105556041313,0.9944128236940286,0.9976231875897333,0.9966743931659195,0.9971548250852381,0.994613881630227,1.0047608963885672,0.9989248602692515,0.9984649242166008,1.0013745332384376,1.0052801927168984,0.999555489586333,1.0000681800722258,0.9982953298216836,1.004908014371417,1.001227296235488,0.9966869908840879,1.0012086589113074,1.0095827968511266,0.9976798924487329,0.9995132086080669,0.9983261730992806,0.9987681458655299,1.004882104936104,0.999965976546633,0.9979988948302272,0.9962266467787929,1.0062244770285604,1.0029935266129684,0.9945423562597895,0.998975834900351,1.000779372644344,0.9934506342992433,0.9997400888832672,0.9991318758991766,1.0020389771121352,1.004460257974133,0.9986420818183687,0.998861352204219,1.0009128705789616,1.0099126703320385,1.0025986546058636,0.9980784418580032,1.0019365675470695,0.99993726458771,0.9967844347200623,0.998253015912514,0.9971612462119186,1.0047109468521012,0.9955810109267273,1.0016303023492414,0.9929737939667659,0.9946197515104982,0.9995329468800788,1.0018247583907602,0.9978141985295989,0.9913269094311635,1.0005768282198562,1.0019219206578,1.00257606795424,0.9964461974079858,0.9991316524122932,0.9965724252485393,0.9888704644551052,0.9980934862963611
1.0039279369506287,0.9951534629574497,1.0016188816519687,1.0026273870568367,1.0045351622038974,1.0049121467658408,1.0023509053193667,0.995789003478618,1.003216215077521,1.0030755779927596,0.9963103768173337,0.9967614099230596,1.0098995178749892,1.0044157424059108,0.9981980498234548,1.0026275284804333,1.0004244505980864,0.9942745562033567,0.9945843423944738,1.0000197394106312,0.9987311860058166,0.9973471784943674,0.9920438298698864,0.9961826457348689,0.9959193062078008,1.000013363617456,0.9975672087760645,0.99991505882768,0.9999045405988289,1.0006494096249325,1.0036235987466184,1.0001877203159946,0.9980045041032459,1.0006193475202934,0.9917212437000558,0.9957830637085747,0.9945800204341859,1.0048742120290897,0.9987273918674023,0.9987670854773136,1.0024033011377498,0.9970569795725165,0.9948927988717688,1.0051112244457954,1.0010429217796117,1.0006484332184573,1.0013430347947339,1.0024314618520669,0.9999267443186424,1.0002054915603682,1.0012644840093783,0.9968607020990192,0.9991539400821973,1.0003941988460299,1.00069375586072,0.9931184799351825,1.0013236246037982,1.0035218981203389,1.00017163934279,1.0075360136640972,0.9988487939124838,0.9990579781558758,0.9952014509179847,0.9986034901046112,0.9961543725853711,0.9995081876630767,0.9988042318230701,0.9996515588564581,0.9974390193898057,0.9995332187312311,1.0052752171223416,0.9959054548066528,1.000646201249694,0.9971184839304579,1.0074973287378763,1.0017549008000521,0.9974881835003517,1.0004785955266113,0.9986270491741347,1.0084521709014833,0.9969864463380063,0.9950029637127178,1.005333292133602,1.003224474823244,0.9991163923913621,1.0008500437452332,0.9925338210209583,0.9967600819294198,0.9986913296041247,1.0033312363478766,1.0083001589236904,0.9960283427097895,1.0086438129984292,0.9981011653240236,1.0012433333229496,0.9954575080072808,0.997638275287423,1.000323362163756,0.9994232191940842,1.0046224198982951,1.0030042900627536,1.006446324615379,1.0037251184115379,0.9989117470674406,1.0052157957457222,0.9988153831206611,1.001464258784506,0.997007648349113,1.0019950995794162,0.9983634681079913,1.0045547717372973,1.0031628363664382,0.9980156256999974,1.0042425890796214,1.0055518154614886,1.006052363373723,1.0013999677471546,0.9958309982207978,0.9981564761569217,1.0042849222599415,1.0059609734364787,0.9992383476566277,0.9938958107759086,1.0049816936469855,1.0063280510321995,0.9992992677766387,0.9922928328651047,0.9929767846480818,1.0014595966057964,1.0009045421388818,0.9966651035545375,1.0010708491300053,1.0032383670802674,0.9983991126975381,0.99685658218189,1.0086807168361183,0.9929781586527828,0.9981093108137998,0.9969333829200475,1.0067850975412236,0.9950128117957858,0.9974374772519708,0.9993756436082765,0.9955649881785271,1.0007592107116605,1.002069326301563,0.9950560885782521,0.9996009466195713,1.002624868665155,1.0008892335050974,1.0069173187228708,0.9927433802532784,0.9984654032116648,0.9994053571196126,0.9988044331692334,1.001153086922017,1.0063432695091001,0.9995054185330057
0.9970420674363178,1.0074807146722975,0.9933683325604244,0.998646859285852,1.0014515895965959,0.997367043676055,0.995849984391622,1.00022401329853,1.005132907200941,1.0021582614962765,1.0018055490886006,1.0001599876532368,1.0038313556454332,1.0062012867296648,1.0003604883276067,0.9974284189443074,0.999013766421168,0.9931676912897619,1.0014205587064786,0.9926851018674668,0.9990520574983222,0.9977516535355847,0.9974341271634435,0.9986317392564665,1.0030932509604513,0.9938316020359473,0.9954244430740432,1.0014127811302123,1.0051468033628632,1.0005389072372104,1.0059610229137985,0.9868850270535185,1.0053775113431578,1.0012399640189293,0.9951627727526309,1.0001429474220902,1.0009727232925352,1.0036581618479616,1.0009966193197275,0.9944179719426198,0.9992822885348845,1.0064398427084125,1.0037888816484948,0.9937475510609965,1.0028395395950072,1.0059330027998583,0.9979496432694874,1.005061147294712,1.0022011919488376,1.000785561146026,1.0065972874683762,0.995885207327039,0.9922442309504843,1.0019705528670937,1.0040692342288666,1.0020925050085676,1.0048445055310813,1.0045086428789327,0.9950876972691164,0.9996536149679732,0.997477470681682,0.9951379509669765,0.9936405539787213,1.0040207042476212,0.9953007403087072,0.9945538490261899,0.9934750096288073,0.9999719053460007,0.9995741883427,1.0023865694218002,0.9997442884259576,1.0039713239396342,1.0032349072674072,1.0020561606057157,0.999885989313386,0.9933678507476986,1.0057079691603232,0.9892065974501555,0.9998241774227576,1.003247747029494,0.9964288717475803,1.0016477756563889,1.0016899361215583,0.9993586005823225,1.0011675319712758,0.9937095738345183,1.002913490168939,1.001990151742618,0.9983926444746248,0.996871490816595,1.00052344654864,1.0025430713256578,0.9985286730219417,1.0029505846525757,0.997571885818833,0.9999793041615512,0.9978923614207572,0.9931668874676193,1.0020447788840277,1.0008417422342248,0.9995832088072333,0.9943047672124365,1.000070117634363,1.0061771677839362,1.0009879719140093,0.999806635870193,0.9989092065478737,1.004369405416356,0.9961156869273272,1.0010794030019845,0.9979322737575549,1.000767136138054,0.9978108584937798,0.999985205212492,0.9962766552017771,0.999887096646222,0.9995495689652114,0.995895594736628,0.9954532607405647,1.0065127439616532,0.9930329204169778,0.9957438665433077,0.9950884455894136,0.996879951181739,0.9998053484685723,0.9914968940199266,0.9973256221559296,0.9978242779198453,0.98974472142808,0.9953718577944516,0.9977863056682875,1.0003773281785318,1.0019753569926821,1.0017317110335016,0.9980890607143897,0.9979825509346154,0.9981925753961608,1.009383393928058,0.9971844059019331,1.0023870509607844,0.9999151987185457,0.9996041372898564,0.9966575453943753,0.995621740325581,0.9920289304608028,0.9995245102567785,1.0025457457795204,0.999402129155801,1.0009125548637312,0.9988490434489719,1.0043199404015213,0.9988764533906058,1.0025626426463812,0.9979346456037217,0.9957274169456162,0.9971665058253418,1.010045362101347,1.0026704931581598
1.002382886987462,0.9941649746129961,0.9939546196788364,0.9998114004613743,0.9961121788020264,1.0057697239196979,1.0051334589328869,0.9933024997559597,1.0054720470668097,1.00078068296671,0.9964291843398307,0.9999849250945715,0.9935044295843778,1.0019389259362623,0.9980444929990732,1.000757958445803,0.9961988128013617,0.9945243578602323,0.9963706293796293,0.9980942125142127,0.9998597159912782,0.9951019194876469,1.0107988246561024,1.0020150773826644,0.9975464143521572,0.9972247470280846,0.9913623145455379,0.9971553014820271,1.0027133809638353,1.0042302965939567,1.0109884280722206,1.0030060459330288,1.015402803127215,0.998618960947314,0.9948655869859662,1.0011211914751468,1.0010157701302778,0.9929546444082022,0.997937009762021,1.004094996361691,1.009647313783041,1.000212913665171,0.9957227388022065,0.9925027964990045,0.9947590460532478,1.0095602424644678,0.9939034245657172,0.9987187586510003,0.9887665559909085,1.0076818279683721,1.0058314928353647,0.9997452263144998,1.0026780647997011,1.0022693146043813,0.9944068518313115,1.0025102471634315,0.9946250486147541,0.9951291789287364,1.0027091750369042,0.9982576620696882,0.9985946018990743,1.003244863316926,0.9921763336420801,0.9957335986411919,0.9939847936953672,1.0029475734740767,0.9970562806819228,0.9989211043542049,1.0093089088677065,0.9943352232521276,1.002603036443644,0.9976415447126197,1.0030920625050397,0.9935052565664215,1.0027728532925266,1.0072381384063722,1.0038691373644553,0.9987111064542813,1.004953707444789,1.0022826842567332,0.9985567249785158,1.002334148579671,0.9943850656477533,1.0048893095807325,0.9918294552200543,0.9979512533556445,0.993492383865885,1.0022197739887246,0.9976979488271797,0.9947923580312839,1.0112756100302502,0.9994011889339987,1.0102577262054564,1.002520814815521,0.998429366929841,0.9954342022082223,1.0016954301031553,1.0040592401094681,0.9918821803602509,0.9984418126699582,0.9926348299053653,1.0031461390599055,1.010251651615827,1.0027456508490338,1.0035153792657066,0.9922212509050106,0.9993530501153579,0.9986535033702676,0.9918103359579906,1.0015080484114915,1.0037475268538067,0.9950231146752913,0.997421390757282,1.0027920065722244,0.9998982195346621,0.9992417835192171,1.0001326226486984,0.9982998628308714,0.9981651054986301,0.9983960371844434,0.998092939393825,0.9940421122062368,1.0040668081334745,0.9988118933375001,1.0123325917401673,0.9991070779704696,1.0092860777854038,1.0020981959359831,0.9966727332258387,1.0053845260212522,1.0029351933523158,1.0020294935998717,0.9893586335354755,1.0000246203974157,0.9974164812789372,0.998768253209915,1.0048351042294792,1.0008825171423232,0.9966385430950424,0.9949065941903414,1.0031892799718214,0.995249399813051,0.9986515314282414,1.0006261548133881,0.9947631787285698,1.0004518527889537,0.9938811271955421,1.001108461451786,0.9934553091800037,1.0027988864939512,0.9960023295584491,1.0006950936831913,0.9964798140365403,1.0034316231525722,1.003386394107011,1.007878667029806,1.0022195105353913,1.0065445972586455
0.9906323312915747,1.0022317293969873,1.0047046605728023,0.9968268087407184,1.0035396969231933,0.9987366865863122,1.0133754175690932,1.0030088764020946,1.004747195116481,0.9939422003512861,0.9919883776219901,0.999061636434535,1.003361632002136,0.9990508963419289,0.9987222114460966,1.0025941114914227,0.9952324022922721,0.9992667228053512,0.9947456936539324,1.000482658554956,1.002184007455092,1.0037243975520513,0.99718983108721,0.9957144960464498,1.004416087557225,0.9996362163469136,0.994964808419006,1.0051460005647233,0.9973781681043237,0.9981417072540454,0.9933183869122236,1.003566063318876,0.9918972855027987,0.9998238030801276,1.000341476026547,0.9947216719806804,1.0029553007803271,1.0024455419662173,1.001545329005533,0.997745342803278,1.0019674985052678,1.003322282085712,0.9992291153548037,1.0038233722465089,1.0034119266924764,1.0019747734352358,0.9948488815098552,0.9948357832011145,1.001435828485582,0.9994001745818646,1.003068439363525,0.998852764054465,0.9956055721049131,0.9967145177650343,0.996878747571419,1.001639039404762,1.0019887447998328,0.9969192895068101,0.999995845052611,1.0063593406904392,0.9994301572539462,1.007789280164353,0.9921997575933157,1.0064819542098957,0.9982313428796941,0.9986702361731822,0.9995627809239055,0.9954599190068141,1.0052914848246595,1.0017061788601194,1.00660384948843,1.0022621393048734,0.9985113418600965,0.9980043394126986,1.001379857875361,0.9989860344688117,0.99030211630969,1.0010163982658897,1.0009656425567701,1.0034015544137036,1.001398739216025,1.0053390220640064,1.0001680096792687,0.9916942327619171,1.0002100936199096,1.0041759105591472,0.9993424728302046,1.0000465543490646,0.9949853043131924,0.9990263832080677,0.9986812966689991,1.0020356186828656,0.9949776650084781,0.9947614667712714,0.9835906163662954,0.9991631985472972,1.0025459729621011,0.9978066095567574,0.9971443612890943,0.9985430129337985,0.9975692534876767,0.9995041528954748,0.9980936895195475,1.0098579089901214,1.0044130520138421,1.002903460306573,0.9982003913541652,0.99767134530429,0.9993759602281296,1.000399103616638,1.0031306750200333,0.9990775652609969,1.0037643458138439,0.9992347939491063,1.0032471307013613,1.0024287580354259,1.0014662819841813,1.00362401405351,0.9978169661840047,1.0005930767862332,0.9994368994367069,1.0029342165426478,0.9995138735174478,1.002184309772861,1.0019788191086132,1.0000906314487021,1.0012953120001116,1.0049435009977798,1.006408299494459,1.009194880120857,0.9998425252280777,0.9985680800679636,0.997947658071329,0.9998972858257928,1.005975777332881,1.0006547539538604,0.9975618346031495,0.9998306359049172,1.0023350669611435,0.9957736783430731,1.0016709805945971,1.0067483979718597,1.0029704392866883,1.000938766636799,0.9981067699755669,1.00012786312682,0.9968062215771708,1.0024167660179937,0.9985134093698467,0.9972232569315477,1.001395661889572,1.0056747121457612,1.0035992191503664,0.9992576925727608,1.0005759365021327,0.9998180348566063,1.0014809820914634,1.0033492016717918
1.004425237864859,0.9964283398172363,1.0029343618909394,0.9991238977943696,1.0067245076520066,0.9938835787126726,1.0011658208664318,0.9949194093035905,0.9983041216324627,1.002771548809031,1.001426737111004,0.9960735794528097,1.005077428021674,1.0015480778037154,0.9918008218446616,0.9985394986786168,0.9990379451311211,0.9996599235095273,1.0056889319749174,0.9982109916934603,0.9953760092086597,1.0045784579035566,0.9961397380623586,0.9919316807586087,1.0046956552009698,1.0053923825516355,0.9975213508287802,1.0027798540817994,0.9991562541219751,0.9967804575356772,0.9935117671007873,0.9980631635581433,0.9932154757918559,1.007539019374574,1.0039754396016023,0.9980052792321866,1.0062252872376756,1.001673215270491,1.0039436265096482,0.9999546617562413,1.0001132963742485,0.9983187194833192,0.9940943326101904,0.9979438923164008,0.9954281199465879,1.0077893209058657,1.0042000411890568,0.991133471730729,1.000063525398081,0.9893971401686676,1.0029906893144915,0.9965472139274086,1.003610112506643,1.0009986254900094,1.001921021137047,1.0002294536134801,1.0003610707873103,1.0005095480397117,1.0003874386931535,1.0027424594981476,1.0023392122188648,0.9973527069838295,0.9948040231016162,1.003969252547465,0.9975595664560928,1.0026170143805504,0.9996311983247371,1.0006891424287598,0.9934562774771974,1.0002810010661207,0.9984933890733094,1.0011510051510695,0.9946914863868294,1.00456915999804,1.0023757056018994,1.0010562514774215,0.996944183901601,0.9987643961914701,1.0034773456770067,1.0085190668464208,1.0019511778273633,0.9980467429789537,0.9981042704885563,0.9995628138779322,1.0061088944283834,0.9993346200133955,0.9983222695070355,0.9967979305571439,0.9991298908658417,1.0006487943692954,0.9904608538191882,0.9976861300934854,1.0000816099040786,1.0007511011345895,0.9953889034487681,1.0000967405090446,0.993534345703907,0.9981348500174319,1.0032866297429934,1.0011074666990183,1.0017751316445913,0.994427125775017,1.0033904330247754,0.9967323126395148,0.9978956102989918,1.0053606255943786,1.0000089194271873,1.0030426844759548,1.0033509188029583,1.000662261313561,1.0030780441193863,0.9996234536785984,1.0040136676392017,1.0028359986195854,0.9931988249369623,0.9942887543045501,0.995915914457354,0.9966512171646442,1.01036492266012,0.997896422164779,1.0028099628759586,1.000017254388454,0.9958226832574854,0.9997593940691146,1.0029195478906046,1.0049864830494974,0.997522820321797,1.0020138370696632,0.997186410246079,0.9997805939632369,0.9949490153049552,1.001384376761547,0.9968460733751537,1.002895359086831,1.000171673197392,1.0018805717727246,0.9930112921628653,0.9942410015055333,1.004107525090354,0.997599224620883,0.992368396374575,1.005247802676991,0.9985227383840571,1.0045406271431738,0.9944063019835571,1.0056866461426286,0.996118581708742,1.0020639225527455,0.9975463532963874,1.002106110593162,1.005132119331418,0.9924521509368704,0.9986447457858775,0.9997839146889916,0.9992097317332124,1.0010806792109956,1.0051358223569733,1.006565020779537
1.002532266221525,1.0014871368659792,0.997715930752219,1.000464214774949,1.0072240897969138,0.9927846794040863,1.0086021720544098,0.9927600568347836,0.9987263607885228,0.9978989256675681,0.9965834034878129,1.002565949863213,0.9997225419693127,1.0029357438995157,1.0021487224657764,0.9981811783728529,0.9979697765681768,0.9973002312695763,0.9954572717988915,1.0069661854802179,1.0048761385823606,1.0010608822296267,0.9972191728423937,0.9989405584331492,1.0070254709982558,1.0049867007975128,1.0005866976089917,0.998272486096483,1.002428059716563,0.9968187782941761,0.9977723631258032,0.9968432110085278,1.000997426063974,1.0033097570200817,0.9910372123917993,0.994804547239445,0.9998694046250709,0.9925590380132737,0.9981049991056069,1.0007635063317022,1.0009836556738783,0.9916946318554852,0.9950792953531133,0.9972926264514778,1.0020694197287459,0.9984149108767029,1.0040653983583927,1.0045585317080485,1.0099753594158734,0.997556153491205,1.0014819012605471,0.9982119931905836,1.000585904260496,0.9971710468427517,0.9970034180733395,1.004389323563531,1.0005113403749992,1.0043120367503715,0.9935730648022292,0.9996218302266769,1.0005294946483863,0.9968092793349533,1.0037286292492202,1.0026879205263004,1.0001089686689755,0.9988721213144832,1.000220336467746,0.9970174955374596,0.996326584912014,0.9960923259985068,0.9948101322972898,0.999277748140154,0.9982172958068287,1.0037793362659373,0.9982276673048954,0.9968551684426596,1.0008801196815968,0.9994597668208783,1.0003836774153936,1.00058342276569,1.0041829772636863,1.0049029540257106,1.0037285220614667,0.9964892412159405,1.0057051592721213,1.0016185651054197,0.998284304356406,0.9971804887224183,1.0081100814576747,1.0065187260657278,1.00061818385823,0.9978214147462835,0.9955834096245443,1.0010366711496919,0.9986503440819723,1.0040369981951767,1.0015715544275565,0.9989495021524549,0.9974899737746785,1.005050366457371,1.001515800883056,1.002764169550085,1.004559858614222,1.0010063888030991,0.9928216617479335,1.0031162827784057,0.9959768191667366,0.9991208990376543,0.9956078755018857,0.997454332613343,1.0041672421572179,0.9999683240489626,1.003320248448145,0.9975675359693125,0.9951091320094069,1.0034480117683648,1.0017647673942085,0.9970907085159801,1.004825952309975,1.0028063818099,0.997776215714118,1.011437573829017,0.9985055452849564,1.0002459236678545,1.0048679841125308,0.988666354613641,0.9993311400669995,0.9904968886937229,0.9987842593593408,1.0035554511293137,0.9942733514341536,0.9981328842608349,1.0000940843005446,0.9900823266319323,0.9975045190588799,0.9992902798051648,0.9958513794691032,0.9945264779621102,0.9955760885495897,0.9991368731276813,1.0022413762123243,0.9972287072178762,1.000755716592494,1.0076174664720372,1.0030664639175997,0.9954835403309722,0.998571413935576,1.0035962844145327,0.9939172805754535,1.0004736749139647,0.9993085442905445,1.002522621023206,0.9989786171072278,1.0032810168230344,0.998402864605666,1.0001460595211613,0.9998672180137961,1.0000035705193897
1.0054234446625852,0.9976361599670102,0.9933515115638532,0.9968025979332292,0.9996201939755496,1.0002172189466685,1.000624868215604,0.9982618835212236,1.0002196823415714,1.0013197966588057,1.001879700225466,0.9990769949001822,0.999074803387684,0.9986452049367089,1.0007301318094914,0.9966839881967848,0.9997330675604124,0.9958415987829057,1.0000892436715738,0.998903523090149,1.0009747986258355,1.0016420613249963,1.000406923609189,0.9986806360423488,0.9984413449888936,1.0001803317957356,1.0025215882313963,1.000239260494371,1.0005948933171234,1.0018249378783861,1.0015385199552513,0.9972573481753936,0.9989791714567312,1.0025059740201963,0.9982035320316951,0.9991439191863668,1.0003234896607653,1.003990700847017,1.0023286925173374,1.0043587464946842,0.9961822247480908,0.9979101617305653,1.0027068268034283,0.9989954165374006,0.9987975625205451,1.0016605743832798,1.0020095482646862,1.00039509433514,1.0025632244327423,1.0022115532064806,1.0005752558818535,1.0044582404289017,1.0001179337646007,0.9986144344279535,1.0031091676658943,0.9991281134790869,1.0014085670685031,0.9986130380696256,0.998234774863689,0.9968795392884019,1.0008322032158425,1.001079904287738,1.0005359536620455,1.0034843419800694,0.9987938441609533,1.0034169831170583,0.9998779663197696,0.9982577628548576,0.9984929386877245,1.0043302278416275,1.0000144281749694,0.99445132641185,1.0013111725234056,0.9974512465714527,0.9999062299865816,1.003628161589486,1.0016077495470308,1.00204708116108,1.0066997980406087,1.0020120347252692,1.0004208894410094,0.9966887106045949,1.000116477850743,1.0008841311722239,1.0000362102433644,0.9995649258697102,0.9957999580531037,0.9977849278229679,0.9996133200232237,0.9921346397075523,1.0021585422486579,0.9977532904969476,0.9999154759579222,1.0016391122114985,0.9998225373191802,0.9992186841835268,0.9951239641721797,0.9995526411086606,1.0003122056747307,1.0058457834647407,1.001901003595345,0.9955485213755119,1.0036712343084342,1.0026162356144426,0.9999361357194854,0.9978318209964347,0.9996288865510823,0.9960582665480315,1.0032508282891297,0.9990338301860021,0.9987879070634641,1.000174089186985,1.0013483519206414,1.0007394751142695,1.0002321911952805,0.9943244409201853,1.0016252468146831,0.9979525436427786,0.9972205921990971,1.0022651689541542,1.001923901124329,0.9982507145721154,0.9987995525253157,0.9965579917811942,1.0009150564794573,0.9946650729046081,1.0002330042107337,1.0005983544080057,1.003586313656932,0.9996670032209151,1.0009729366591058,1.0000092916305308,0.9985093218939578,0.9978758883822392,1.0026296686149239,1.0005643191944718,0.9976138587363312,0.9995898148544424,0.9955363524753156,0.9999269633950312,0.9989839395517438,0.999071215860047,1.0081645805555237,0.9971336938487917,1.0005130294044589,1.0011001619278772,0.998108951200419,1.0004496713701205,0.9980229242081111,1.0006975461342835,0.996761956738898,0.9984802236344652,1.003880126918931,1.0018121275431524,0.9999877267623816,1.0024598407995255,0.9984008041173945,1.0021581162042494
