0.997998343881443,0.9987509965935152,1.0035670057084203,1.0004456448187793,1.0027640101435091,0.9999470668155795,0.9976604161098691,0.9942095893271496,1.002012935195432,1.0024031361676928,0.9968035915661089,1.0008877615135865,1.0004509740819791,0.9999180045966375,0.997864208471446,0.9994357013922238,0.9969497722465145,0.9964738785420838,1.002494762450058,1.0026278002471454,1.001223414296817,0.9972838606460045,1.0009550547885808,0.9984625503777194,0.9988165118423991,1.002001377475563,0.9989177930594276,0.9990297004241443,1.0053625692000567,1.006027495080261,0.9969971619797593,0.9983187349928745,0.9981185365978915,0.9999611077086997,1.0031831973974412,0.9988847823973143,0.99861476199307,1.0039685882855331,0.9961265106027358,0.9967826279509975,1.0009092106319657,1.0010352787459993,0.9956812237181459,0.9934035727401509,0.9999181493537884,1.0040203002886594,1.0045533765826256,0.9982727560067356,1.0010517801100631,0.9999501418370998,0.999402836938059,1.0029011210937582,0.9981945721333106,1.0024784308403527,1.0046469575727819,0.9957830366252828,1.0029852188406727,1.0050060725685614,1.0015812128100525,1.0002378740696765,0.9977988791668418,1.0001836109655042,0.9991688937718738,0.9964526103974228,1.0003484230623525,0.9971118746990969,0.99844511340434,1.0017237562215493,1.0032837889595865,0.9944672481755705,0.9946661425988378,1.0024952028880472,1.001715347679125,0.9950735243386043,0.9981630059395548,1.001249020375531,0.9982426795016991,1.000488954270321,1.000528192314969,0.9997780269605882,0.9954442520653808,1.0007578217559197,1.001572833893493,1.0037721281594445,0.9999981947496742,1.0007169208808173,1.0020051931076663,0.993904110933932,0.9997053850571272,0.9959392723852223,1.007064771042688,0.9969210993324186,0.9937941966442604,1.0001321961692315,1.0052746787148874,1.0005571521392553,0.9933525870012289,1.0003565724642898,1.0007485819630224,0.9992421692787886,1.0031898805896307,0.9990691815312565,0.9975631390053387,0.9988477330593921,0.9987662645338372,0.9993594353333551,0.9978753396040024,1.000834342084481,1.007735519442349,1.00290454953062,1.0030439812659722,0.998954677957152,0.9962167141817592,1.0047056546355768,1.0008596186927552,0.9918971641596033,1.0000700773118893,1.000455732318804,1.000224863781782,0.9985730515221404,0.9964730460473756,0.9987441156357109,0.9999547023958527,0.9959299208957051,0.9964321526351542,1.00140683416398,1.0032003642420924,1.0001166987194399,1.003156937665929,1.0006027672977982,0.9965832621772931,1.0009604745766865,0.9980787952042374,0.9982090922415044,0.998702376312323,1.0005005650799124,1.0011659885436415,0.997737409665215,1.0016304480635472,0.9991525866829353,1.00171935429486,0.9996918719246428,0.9961701895968392,0.9988904219583783,1.0036881994119096,0.9960146375707124,1.0027837315933659,1.0071029176021362,1.0001319341788906,0.9989355038934155,0.9979408140169619,0.9994568028788738,1.0026899261361641,0.9954557767602712,0.9970800378625498,0.9968732955657729,1.0042268616118923,0.9980756875676237
0.9985614415114685,1.0019579174597795,0.9984563042420613,0.9964841189839639,1.0021321113601254,0.9981972849165207,1.0049814125913705,0.9984854648104279,1.0022498707648406,0.995425187124301,0.9962128418806697,0.9999780653615292,0.9999912895981177,1.0038690373987535,1.0009608194581168,0.9992595315574976,0.9977821427551133,1.0073342070028415,1.0010287469601173,1.00302398226605,0.9994565823064204,1.0034362933645038,0.9960680300752965,0.9983274472204611,0.9995150330275678,0.9963881133752087,1.0032884290655648,1.0018142245116617,1.0013862290700104,1.0028215182488338,0.9997577148956164,1.0033266225545219,0.9981362063706916,1.0004712832822185,1.0004565341179643,0.9963063633486241,1.0006967198495897,0.9978957826717482,0.9957194617807887,1.0047336225757437,1.00017297981627,0.9960135351979288,0.9995535026580841,1.0071037887719054,1.000054858915118,0.9979646879489962,1.00068367997383,0.9984792965573808,0.9975682717082962,1.000348198695422,1.0004108944062655,1.0003221852435003,0.9974568371401787,0.9993852810926904,0.9978831632818921,1.0007749780114412,0.9965592517332044,0.9964888912076376,1.0023794652504299,0.9987745328574845,1.0056008528396516,1.0016636268551034,0.9974099537790837,0.9969826871659809,0.9977472281125442,1.0001633397419554,1.0001041024126023,0.9994438346211721,1.000203770769638,1.0016022481033635,1.0016867996056176,0.9982853156359779,0.9989565305456518,1.0041906340805309,1.0015396774476721,0.9973505889627375,1.0001187009616899,0.9986356573888934,0.9973310871878586,1.0000860586470286,1.0013271865544695,0.9998212588421982,1.0003975122120237,0.9962967345318031,0.9964321491636875,1.0041316154205726,0.9964422645177453,1.0043588669758843,1.0064641520677597,1.0011505637321918,1.0010907522364472,0.9980224475091473,0.9987173393515067,0.9994110744171496,0.9981286077779327,0.9963093506580003,1.0061338169193155,0.9986143346549357,0.9983837122791926,1.0045338259729524,0.9992539393659092,1.0025735927434902,1.001249462320255,1.006878384144809,1.0004635373418929,1.0026976938147436,1.0007553750281601,0.9980418209020865,0.9995434907179152,0.9985931139679277,1.0005006294344354,1.0021803224904844,1.0027770649727914,0.9991569260986295,0.9991572334919687,1.0017767480555733,0.9973844468938742,0.9998379430767049,1.0004918772275333,0.9998718603185424,1.0068977228596485,0.9977659242405196,1.0009483283982934,1.0008641992389573,1.0039943983524438,0.9972564384802647,0.9996009031976213,0.9955167799403317,1.0004967546725496,1.0032050927952851,0.9983300931029524,1.000969790013972,1.00235540831392,0.9977011447902812,0.99584566121931,0.9975341503314932,0.999558527641156,0.9972749901300406,0.9985063754647848,1.0013679849091544,1.0008092457557995,0.9992238274796109,0.9999565866083705,1.0012585070330893,1.0009674462472464,0.9995809726944628,0.9994722168773021,0.9944818910584196,0.9981537246386064,1.0054044853695863,0.9972583424305184,1.000173317579269,1.0017023219530548,1.0013765884707035,1.0048388301212094,0.9969463070620156,1.0008747752557041,1.0028309740364754
0.9999853817952092,0.9996745564727111,1.0004780338658763,0.9976842425869583,1.0003130883668547,1.0009471197633149,0.9984800770019175,1.0007114565958213,1.0017693099074378,0.9981526405185904,1.0007169137042373,0.9964209442144984,1.0007958024410708,1.0018998664588985,0.9977126142329371,0.9939360697750778,1.002530163209442,1.0006215295502356,1.00117966959611,0.9993112863166733,1.0002314746803835,0.9981598325513867,1.0021297627373866,0.9992872307675426,0.9986675906178043,0.9976978324432264,1.0012509016856626,0.9991301625634449,0.9987087694997977,0.9960865119586071,1.0009400881058372,0.9982500616964995,1.0063664446419307,1.0007286105977922,0.9998733519381285,0.9990806682801892,0.9997500907311107,1.0010725450089846,1.001116141336523,1.0012671881298016,1.0000415921848382,1.0005889142801387,1.0050100837144547,1.0005018506905903,1.000866639192071,0.9997802124290704,0.9998031117196928,1.0000458327671418,0.9997724829131134,1.0028125434918935,0.9995960723945817,0.9986171281993191,1.0017247734363481,1.0005393205878663,0.9990087672458863,1.0018785738669647,1.0006327669962765,1.0011285662153724,0.9984095191072624,1.0029190536502512,0.9989867780190742,0.9980733781320196,0.9975376368953872,1.0005061276697813,1.001759244717995,0.9986764369959483,1.0007038851026342,1.0003824312909353,1.0007361346396175,1.0010585132877479,1.0012460990606904,1.0019523759506448,1.001355460383587,1.000489873061642,1.0015096479854315,0.9989138253993853,1.0016173299045366,0.9984858950807219,0.9980524959175688,0.9981008327995805,1.0009438612414896,0.9989075266099475,0.9975569061284716,0.9985079399661891,1.0026564511070193,0.998686780234886,1.001640554322517,0.9988020805972062,0.9978930744331015,1.0029462654785175,0.9971677241909405,1.002206003183812,1.0007140012321556,1.0012759938520213,0.9985059154310363,0.9977927360583058,1.000806813224692,0.9992256403676686,0.9961150054972704,0.998716725082789,0.9970602728273258,0.9997279781675128,1.001525920306536,0.9959777976413786,0.998838247272253,1.000870218485064,1.001954595802851,1.0006892767242648,1.0010418705455537,0.9986153293580574,1.005649948803085,1.0000557909580141,0.9999280286658204,1.0009678607080696,0.9986714537912179,0.9997888306583662,1.0018268358866294,1.0013384439448973,0.9985053296757864,0.9972051997516593,0.9999155060018797,1.0030433519799506,0.99913684200839,0.9996172905303162,1.002474559914251,1.0018719925475772,0.9966082470292144,0.9990152242343566,0.9966758140980562,0.9995640525953172,0.9963455770330769,0.9985674604694452,1.0002165179431048,0.9999993986614324,1.0003876325774066,1.001999023790773,1.002127385474471,1.0016695634052402,0.9970357612140629,1.001446805759995,1.0008641880027882,0.9996170471276343,1.0002597122021724,1.0013152702070287,1.000288288377076,1.0035588503032375,1.0004952416820705,0.9977682775149083,1.0016410893280048,1.0013070894818057,0.9983595080352548,1.0007077746233626,0.9995275998559073,1.00169796647573,0.9987116264566104,1.0021211761183249,0.9987863629210149,0.9998086419071605
1.0013530322406514,0.9945266671372466,0.9977051641742671,0.9991058104072014,0.9967290929174238,1.0012762264754314,0.9977228176511832,1.0019466264614907,0.9996426631116334,1.0007648773858089,1.0015697835030875,1.0029969333312487,0.9991131660600391,0.9997775725333989,1.0008042075097425,0.999874223514745,1.0027183844998253,1.0014312306736777,1.0004892540370598,0.9997440971851889,0.9963880384934404,0.9987773487532033,1.0020394084299908,1.0005876262133122,0.997336965183898,1.004669769845344,1.0033841943685446,1.0028842384726397,1.0019568203176308,0.9948724981123299,1.0007029524532924,1.0004914479924063,1.0001220859381355,1.0003865254216766,1.0011605898583047,0.9980662959034841,0.9997486373804378,1.000042422995618,0.9974613340624305,1.0037725105805613,0.9956618958749605,1.001191749535185,0.9974706494419123,0.9982548969108741,1.001036403491914,0.9975695288205483,0.9964979755231456,0.998426335855325,1.001068752996348,0.996624785309319,0.9981833886121578,0.9961726769498083,1.0026556362321262,0.9972575722750879,1.0009180592305127,0.997592595837002,0.9984419912250424,0.9956623099874328,0.9994239122268832,1.000814504036974,1.000786394927309,0.9991576952814051,1.0008139011822579,1.0036917557080098,0.999385773517057,1.0011367122794965,0.9997010534532564,1.0010422872740303,1.0008311844163245,1.0012374090688645,0.9958859087154086,0.9953541251774145,0.999022880684708,1.0018605896065875,0.9985604703320484,1.0023380890479514,0.9970277191754686,0.9959121781480775,1.0048945170488865,1.0012862431653782,0.9972915913814185,1.000206625424877,0.9933160318881485,0.9997802410939634,0.9982105902743801,0.9982941941526171,1.0020422855794007,0.998003166718409,1.0054882459380314,0.9986548362752774,1.001169035509512,0.9985358860329078,1.0016387620590683,0.9992440415025566,0.9964604825869194,0.9986924422618498,0.9962774890225017,0.9999774809039561,1.0019850446698826,1.0039037900029437,0.9965596574051804,0.9940270095136976,0.996350081561677,0.9979276955594515,0.9987472086212515,1.0019296461675444,0.9988090410968941,1.002926815824237,1.0014624375228063,1.0021284566579995,1.0031022700230772,0.9975858975041915,0.996110626843165,1.0011918134120432,0.9988390321719745,0.9978457241155075,1.0002884661805378,1.0042490168999365,0.9987508967983905,1.0036013961100678,1.0011028400877755,1.0047643608776546,1.001065811259408,1.0023151576428149,1.0013116307302041,1.0041330889240827,0.9978108377386404,0.9953953351798485,0.9999841672241777,1.0023701296154015,1.0016547131830353,1.000777434895802,0.9955999791129931,1.0027796377860947,0.9968801830461164,0.9984332951594486,1.0013524643948015,1.0021825772630342,1.0007702118669328,1.0018495587998337,0.997056218849483,1.0015134807051218,1.0032782630706178,1.0023711387484517,0.9985131036025082,0.9986211365508043,0.9993441265427332,0.9992295382228242,1.001636854281869,1.0016962498189086,0.9969495595462295,1.0037986756229909,1.002011407135556,0.9986158046810721,1.0030274459211528,1.001558454945577,0.9989963243742607,1.0041332395682183
1.0020313684450841,1.004751040990079,1.002633862443983,1.0023231670708623,0.9999824424166861,1.0038664539640705,0.9981773910674316,1.0052378532153,1.0005159845663547,1.002075367845702,0.9985041393051145,0.9992216807924895,1.0041449375209506,0.9964057316663987,0.9984662775212492,1.0026898809860951,1.0012023722759076,0.996627995103442,0.9979704816295609,1.0006399188279365,0.9983299222748361,1.0006233684291996,1.0008185840212382,0.9993404850198062,1.0034444741158148,0.997219742474253,0.9973581303839474,0.9978736586119172,0.9931818624079595,0.994030367102131,1.0031596662561533,1.0021950323450743,0.9958612674051712,1.0043344053064882,0.9939570363784065,1.0050413219215986,1.000614901279792,1.000231118115769,1.002816337912981,0.9996585698502473,0.9999522915534796,1.0021129337888481,0.9952875441653041,0.9977981320792702,1.0089766624203056,0.9975960282247975,0.9981157131688829,0.9983064822721295,0.9959735109525978,0.9991402611582325,1.000567825617394,0.9999340815417808,1.00110643890522,0.9980068511995307,0.9939261144290055,0.998424449104284,0.9976147709674973,1.0010875796418752,0.998805293905734,0.9996271793111988,0.9974785228215826,0.9990940132405343,1.0034767020607012,0.9969786720977191,0.9959749291030613,0.9969353439075712,0.9983223801494922,0.9970831792919171,0.9952964477081534,1.0111771695928615,1.0032350133126007,1.001440597406945,1.003353450442499,1.0073678652586766,1.0030637461565732,1.001807785382556,1.0051417802999738,1.0037424849612062,0.9982535462787927,1.0006370335337411,0.9988848276820957,1.0001864487493801,1.004256080972804,0.9970782120099799,0.9984015764987109,1.0040482615313826,1.0003508759797073,1.0017533375469305,1.004169973940437,0.9992217726720342,0.990529547144493,0.998798823528784,1.0093625235071295,1.0016920196903785,0.9971343056179619,1.0030714747759724,1.003197738983323,0.9979847014371024,1.0020283185984509,1.0018623066798684,0.9995525849256199,0.9960270936352977,1.0018362796626814,1.0008854149484436,1.0029258237510723,0.9947926467714293,1.0003197593405708,1.0016142369355554,0.9901414171964878,1.000027871407821,0.9915938220318028,0.9984904225994669,1.0014080735539186,1.0026234595696915,0.9959061429149565,1.0036755266131838,0.9962355362146484,1.0018889441490357,0.9995587236036952,0.9968655367964028,1.0046358305498886,1.0011879872395895,1.0032499602155687,0.9968899571062145,1.0020757996712637,1.0000405547461968,0.9964666295067444,1.0039136951844676,0.9964053378583632,0.9988511614623031,1.0013174101256297,1.0002644229145772,1.0046009461624281,0.9955145073834819,0.9956466216289541,0.9997189380388594,0.996649222667255,0.9949899758841189,1.0028017800032265,0.9949457623155107,0.9994913288831933,1.0010475177263893,1.0006016276279968,0.9944184257988573,0.9941052287858675,1.0039267112110712,1.0025921131158533,0.9963469813272099,0.995388967196112,0.9940928646688564,1.0007530147281376,0.9976815450654117,0.9968662042591413,1.003051667057942,1.0072053688288327,0.9993539639890128,1.0023435297650658,1.0019699527144499
0.9969267406265837,0.9986838004436136,0.999717843488477,1.0030383768711386,0.9960932391206139,0.9944658708920756,1.0028864226593315,1.0008820224600907,0.9981883373685344,1.0009838447353503,0.9998350213755436,1.0005550060648676,0.9997003209601562,0.998504072792065,1.003789345231953,1.0064639445832273,0.9995823199209279,0.9978611851878387,0.9925132938699177,0.9975607569214012,0.9998152353523577,0.9989701145927332,1.0009954609106577,1.002297212183252,1.0016020498537652,1.001154081850064,0.9952870464316503,0.9925506927995812,0.9963193087656514,1.0028706650541648,1.0001627463249598,1.0020221679784849,0.9966047908278716,0.9988448110440369,0.9994422600036765,1.0014216339957225,0.9989644656814818,1.0007299569332089,0.9984104665152606,1.001006980640588,0.9989924451710575,0.9974635064195441,1.0036525145362292,1.0052351534745603,0.9961125240463874,0.9984555757108222,0.9985423917618075,1.0024118296737516,0.9985459612458971,0.9976240896130473,1.0072033154372622,1.0012820906610926,1.0034747131631951,1.002323469003265,1.0023393279213324,0.9969268281575426,1.005626453694787,0.9971030297697371,1.005147963787832,1.0035581729536744,0.9949372321093024,0.9969068570846272,0.9986222018115706,0.9990880287194943,1.006009593104809,1.0067787911253467,1.0035605981373077,1.0029525645375006,0.9906586450278676,0.9964891265891296,1.0037441274688086,0.9986048287947537,0.9995201683739869,1.0027521675545692,0.9941226942184338,0.9984168685620112,1.005316630383191,1.0041553739898466,0.9970999058806208,1.001231489012346,0.9988044407421904,0.9991696032642072,1.0076248710630626,0.999044804690592,1.000009416210876,0.9986489900797424,1.0009786100676128,0.9981487620210593,0.9944601330247076,0.9983452929792528,1.0054307211662317,0.9967769060818702,1.0007171618565789,1.0003200818365927,1.000014305331048,0.9979639847304308,0.9996415348329323,1.003016837131099,0.9925354666354567,0.9976068347876049,0.9980183979490128,1.0023167798734163,1.001063685480818,1.0024962419075691,1.000858716645605,1.0043832463006728,1.0044246479275345,1.0001611918673468,1.0017355885206922,1.0013766683401026,1.0001334376153905,0.9973370891601044,1.0037799675131447,0.9964560618205041,1.0020162051806487,0.9997364460528005,0.9983376840183785,1.0024031144015246,0.9988375320510015,0.9974912608486093,0.9960422260368746,1.0013785321105813,0.9980914659853077,1.000503996558296,0.9958046218880576,1.001404023942751,0.9986229678914634,0.9964580985315665,1.0023861788759438,0.9975329107796497,0.9970755653969576,0.9974938254594945,1.0045513242431905,0.9988711919792735,1.0044638937940964,1.0025475329362583,1.002959454241681,1.0068380230198442,1.001955528628546,0.9967260906699773,1.002411178560809,1.0019719148707729,1.0043069184892273,1.0041083694664832,0.9997155041229058,1.0019033978082699,1.0021792023095335,1.0021240919713605,0.9996982742195868,0.999133190566747,0.9991848330506865,0.9986894468794649,0.9979436389886356,1.000114636346945,0.9956201087541301,1.002216727836977,0.9966145496093247,0.9998369340341685
0.9966646657364104,1.0009465348174102,0.9986196623787365,0.9995398972215496,0.9980480893372694,0.9979012701710767,0.9977302111226602,1.0051404004930824,0.9961932449602744,1.0039407719873603,1.0057172082581112,0.997892932190024,0.998141962787565,1.0007667895234995,0.999200624542025,1.0024221042656067,0.9958233855754505,1.0003431395033977,1.0000201654868743,1.0023238855222525,1.001709517849821,0.9971006181495938,0.9963970082195881,0.9988152616494189,0.9990127989899139,1.004935730009083,1.0014322264530051,1.001036767971603,0.9963840489922239,1.0005460246795665,1.0039409470219314,0.9973799791893069,0.9980714024839349,0.9961950865665028,1.0020622656687528,0.996440453310162,0.9986496768499168,1.0007481149371793,0.9997677825821044,0.9993748626159581,0.9999140466242711,1.004058494527971,1.0015634189568983,0.9977935327423062,1.0004669105349246,0.9949888530803608,0.9970698639008356,1.0026314993104057,0.9973652782104414,1.0017083353163154,0.9943051116801487,1.0009776908905461,0.9988991668335737,1.0005019954457017,1.0008302266890088,1.0046989445204313,0.9995014125880213,0.9981321628271979,1.0036607769080714,1.0029545716071084,1.0070757701374158,0.9995684590314018,0.9985627920401158,0.9999903873726431,0.994640499364519,1.0074740633012749,0.9993941368078931,1.0004773944794472,1.0001302577217472,1.005843404780937,1.00123840589805,0.9996663753738686,0.9974130900494652,1.0023647085248906,0.9965681903749128,0.9977613010140294,1.0022282353656449,1.0060678529342735,1.0046634577152371,1.0010518707645546,1.0051462685923258,1.0031225675237587,0.9988270724230521,0.9987101661062695,1.0008316626382396,0.9985607208650563,0.99846696590633,0.9995196357234659,0.9984931452412171,1.0038350592886471,1.0011529038159108,0.9970794730897141,0.9983474071775051,0.9975911187516432,0.9930913330812278,1.0015514150298723,1.0020189991128101,1.000213297826208,1.0035256999043338,0.996034711074092,1.00203130624277,1.0020944865834427,0.9974252039978079,1.0020506974508379,0.9971937271053098,0.9980704087009402,0.9993942183003077,0.99323612967317,0.9970904897493509,0.995731208295717,0.9955935140823245,1.002262767843907,0.9987836953753275,1.0011707145517963,0.9958290963267321,1.0032581748039846,1.0051451924491552,0.9983923173467575,1.003949115611515,0.99658811948966,0.9998506104650501,1.0041632374994807,0.9953818822023314,0.996997793688256,1.0011189327467185,1.0022773552685624,1.0003802293010597,0.9988289656777415,0.9981813679967007,0.995752700276104,1.0091639576108449,1.0037907085933113,0.9994844532519868,1.0003601550102528,0.9986793466784472,1.0001906892607764,0.9988528194015268,0.9969030109414379,1.0058376936805997,1.0031287201282757,1.0010693427163702,0.9913990505250686,1.0026219717334066,1.003553769392496,0.9977335563466075,1.0033026977886763,1.0019207615612058,0.9973666368351988,1.00452879039663,1.0024455524411322,1.0017820705731486,1.0053184586618527,1.0002484474897522,1.000456786381992,1.0038127420718819,1.0052421062505872,1.0002449149940353,1.0028963815903218
1.0037701355362538,1.002420430652698,0.9929513710912621,0.9997373677002449,0.9999948183136477,1.003927411467316,0.9981010255122211,1.0068246514789227,0.9989510719039251,1.0018017807039934,0.9990880320669311,1.000952054492613,1.000993010036312,0.9948215784701715,0.9955203447062518,0.999669480778057,0.9990904482390986,0.9959821072400539,0.9916838949975537,0.9966046345335823,0.9972337359909133,1.000866938244244,0.9989104425322146,1.0082672963623196,0.9978776261398923,1.0015018762174221,0.9976462013308389,0.9999717439100649,1.006718139222764,1.0011275181087047,0.9916936012098448,0.9932088720226248,0.9972418058952494,1.002710829895057,1.0040992016678703,1.0042389646134333,1.0043929744818623,1.0009947029863309,1.0045246193310515,0.9967201360939949,0.998012268042555,1.0014652024981026,1.0056977751727194,1.0015249002709719,1.0023631975033287,0.999440143752529,1.005032271826652,1.007420628087132,1.0001179082733613,0.9973677574583706,0.9928084844668803,0.9953234583948212,1.0055857049979735,1.0020484422454068,1.001293820534433,1.0055213376768772,1.0039121556610087,1.003627283921584,1.0007285724696446,0.9974062299912403,0.9974991880167324,1.0036548389524618,1.0004950259586811,1.0040372251724332,1.0050458515716687,0.9952079114856874,0.9975579003798084,1.0052300097950588,0.9961401827404042,0.999264865074778,0.9956484863490255,0.9990488289772991,0.9941512849973841,1.0033647458961146,1.0047757853357633,1.0003712998542291,1.0027165582836486,1.0040782313984697,0.9979851552796785,0.99844183700247,1.003183620001331,0.9989267858200722,1.0058137711441302,1.0017396771986877,1.0048714557570937,1.0062846047137095,0.9963495959208497,0.9985721457932061,0.9999766903107172,0.999063483776111,0.9984083607121302,1.0023060513103983,1.0051828445633308,0.9997460701472884,1.002336878452409,0.9979800257138148,1.001893870735048,1.0002874327349014,0.999555455129045,0.9980668642198813,0.9994537570955705,0.9970712416617794,1.0002037713327834,0.9924475406906655,1.0003352506163303,1.0023335131202284,0.9954623291033516,0.9976519622497176,1.0031682201468557,0.9979612242780145,0.9981926680087739,1.0021857105987426,1.003237860738391,0.999746873491242,1.0043151528243555,0.999378476276033,0.995731290460363,0.9984300493591565,0.995261389920759,1.001159649076896,1.0003602888437557,1.0064011847901795,0.9956413189235255,1.0031500454720805,1.0021177096089366,0.9967817002100581,1.0058676334764287,1.0025481885063234,1.0047574377867405,1.0041175341909105,0.9992976243242818,0.9954528391393485,1.001966811549528,1.0016273334083057,1.0089684108377939,0.9969447777030815,1.0031784711162277,1.001368101354054,0.9924339024372815,0.9968465332632491,1.0015068159628024,1.0013965719278466,1.0000942134745126,0.9968102014508268,1.0009335492068088,0.999466208349809,0.9982751925543347,0.99257642046802,1.003807848836927,0.9976441708947132,1.0009134296412459,1.0050965758266084,1.0013607357574934,0.9944265917001243,1.0099522236438592,1.0060426821884743,1.001937586072083,0.991374630285128
1.0011474030986813,0.9973383159891929,1.001810009353785,1.0028371709814656,0.9959955762730961,1.0000183023275908,0.9998800643221145,1.0027214978032752,1.0007530161578633,0.9992404331698282,0.995226107830949,0.9974629689530183,1.0004981903746752,1.002553173730666,0.9987265671636499,0.9971302509699936,0.9995780789874822,0.9929620148087598,1.0014446932429586,0.9974550640718686,0.9987808334266186,1.0017832246275955,1.0005949226321504,0.9936485435475474,0.9991568344921156,1.0001165009483883,0.9982846600599402,1.0028442001977387,0.9991091027069966,0.9956939495487599,0.9997286564940712,0.9951244362215085,1.003503235523576,0.9979404650903962,1.001756461600809,1.0013316566581572,0.9962465978655076,0.9967668566652458,1.0031166462755035,0.9985281569607056,0.9979301580422146,1.0013690621914693,1.001377691923916,1.0006189661268143,0.9989413632975731,0.9941547316066922,0.9989987218957268,0.9980734619060591,0.9990071371718955,0.9986639087554968,1.0004608030581508,0.9966192918519595,0.9960602250883517,0.9944358297938546,1.0010517481838306,0.9959068622029181,1.000238914236476,0.998418531979935,0.9955445372380421,0.995153763720637,0.9977969362383742,0.9986430686559339,0.9989799839586667,0.9993950351280806,0.9992289920695062,1.0047395432319322,1.001469633668974,1.0075079916514862,1.0052982105646298,1.001345376079741,0.9953173969326224,1.0048585519985354,0.9967090085398334,1.0059445985887763,1.0004638506058254,0.994972440728191,1.0007022511203856,0.9948157617687209,1.0017567441884434,1.0007397482560185,0.9992951293843548,1.0012016907901033,1.000087349665769,0.9988591265970108,1.0036609026282999,0.9997998342042073,0.9972592092754818,0.9979457470111415,0.9939057520089485,0.9991565722926276,0.9992493616153202,0.9949491379431135,1.0012425667354392,0.9947282184548994,1.000547241199633,1.0028892913944913,1.0004296020703614,0.9970447678555757,1.001556626522568,1.0013614064583904,1.0034152034196917,1.004705799826793,1.001446220912927,0.9998687021292811,1.0047978442214005,0.9948405422431268,0.999412250429736,0.9960050810435526,0.9985485365225167,0.9965273746421948,1.0006473665288456,0.996524729318244,1.0027548398497015,0.9952234547720473,0.9998917120695199,1.0022588633205396,0.9985358626636722,0.9977808000073646,0.9979256960759976,0.9979778101317236,1.0051399441261426,0.9934841177863851,1.000726823120471,0.9985086338997576,1.0013140379780994,0.9991598533423082,1.0023475415520398,0.9995204273242031,0.9999144500101618,0.9969926164107817,0.999093398752874,1.0046129899497618,1.0027320912097508,0.997246691313089,1.0053276515817156,0.997023667278431,0.9991402051914668,0.9988544806335292,0.9908994323409364,1.0043645596193265,0.9991573017281487,0.9995688283169646,1.0080691095927377,1.002707484626895,0.9995682549890741,1.001669300805819,0.9994759076158847,1.0048045470317875,0.9993096728979353,1.0021859241080227,0.9979295283347259,1.0001083728313478,0.9962315045166674,1.002566180296705,0.9933510328767264,1.0048071731695336,1.0047522783994531,1.0043882086893807
